584
5.88666 -19.6222 0
7.84889 -17.66 0
9.81111 -15.6978 0
11.7733 -13.7355 0
13.7355 -11.7733 0
15.6978 -9.81111 0
17.66 -7.84889 0
19.6222 -5.88666 0
1.96222 -19.6222 0
19.6222 -1.96222 0
-1.96222 -19.6222 0
19.6222 1.96222 0
-5.88666 -19.6222 0
19.6222 5.88666 0
-7.84889 -17.66 0
17.66 7.84889 0
-9.81111 -15.6978 0
15.6978 9.81111 0
-11.7733 -13.7355 0
13.7355 11.7733 0
-13.7355 -11.7733 0
11.7733 13.7355 0
-15.6978 -9.81111 0
9.81111 15.6978 0
-17.66 -7.84889 0
7.84889 17.66 0
-19.6222 -5.88666 0
5.88666 19.6222 0
-19.6222 -1.96222 0
1.96222 19.6222 0
-19.6222 1.96222 0
-1.96222 19.6222 0
-19.6222 5.88666 0
-17.66 7.84889 0
-15.6978 9.81111 0
-13.7355 11.7733 0
-11.7733 13.7355 0
-9.81111 15.6978 0
-7.84889 17.66 0
-5.88666 19.6222 0
3.92444 -19.6222 1.96222
5.88666 -17.66 1.96222
7.84889 -15.6978 1.96222
9.81111 -13.7355 1.96222
11.7733 -11.7733 1.96222
13.7355 -9.81111 1.96222
15.6978 -7.84889 1.96222
17.66 -5.88666 1.96222
19.6222 -3.92444 1.96222
-5.32907e-15 -19.6222 1.96222
19.6222 2.13163e-14 1.96222
-3.92444 -19.6222 1.96222
19.6222 3.92444 1.96222
-5.88666 -17.66 1.96222
17.66 5.88666 1.96222
-7.84889 -15.6978 1.96222
15.6978 7.84889 1.96222
-9.81111 -13.7355 1.96222
13.7355 9.81111 1.96222
-11.7733 -11.7733 1.96222
11.7733 11.7733 1.96222
-13.7355 -9.81111 1.96222
9.81111 13.7355 1.96222
-15.6978 -7.84889 1.96222
7.84889 15.6978 1.96222
-17.66 -5.88666 1.96222
5.88666 17.66 1.96222
-19.6222 -3.92444 1.96222
3.92444 19.6222 1.96222
-19.6222 2.13163e-14 1.96222
-5.32907e-15 19.6222 1.96222
-19.6222 3.92444 1.96222
-17.66 5.88666 1.96222
-15.6978 7.84889 1.96222
-13.7355 9.81111 1.96222
-11.7733 11.7733 1.96222
-9.81111 13.7355 1.96222
-7.84889 15.6978 1.96222
-5.88666 17.66 1.96222
-3.92444 19.6222 1.96222
1.96222 -19.6222 3.92444
3.92444 -17.66 3.92444
5.88666 -15.6978 3.92444
7.84889 -13.7355 3.92444
9.81111 -11.7733 3.92444
11.7733 -9.81111 3.92444
13.7355 -7.84889 3.92444
15.6978 -5.88666 3.92444
17.66 -3.92444 3.92444
19.6222 -1.96222 3.92444
-1.96222 -19.6222 3.92444
19.6222 1.96222 3.92444
-3.92444 -17.66 3.92444
17.66 3.92444 3.92444
-5.88666 -15.6978 3.92444
15.6978 5.88666 3.92444
-7.84889 -13.7355 3.92444
13.7355 7.84889 3.92444
-9.81111 -11.7733 3.92444
11.7733 9.81111 3.92444
-11.7733 -9.81111 3.92444
9.81111 11.7733 3.92444
-13.7355 -7.84889 3.92444
7.84889 13.7355 3.92444
-15.6978 -5.88666 3.92444
5.88666 15.6978 3.92444
-17.66 -3.92444 3.92444
3.92444 17.66 3.92444
-19.6222 -1.96222 3.92444
1.96222 19.6222 3.92444
-19.6222 1.96222 3.92444
-17.66 3.92444 3.92444
-15.6978 5.88666 3.92444
-13.7355 7.84889 3.92444
-11.7733 9.81111 3.92444
-9.81111 11.7733 3.92444
-7.84889 13.7355 3.92444
-5.88666 15.6978 3.92444
-3.92444 17.66 3.92444
-1.96222 19.6222 3.92444
-3.55271e-15 -19.6222 5.88666
1.96222 -17.66 5.88666
3.92444 -15.6978 5.88666
5.88666 -13.7355 5.88666
7.84889 -11.7733 5.88666
9.81111 -9.81111 5.88666
11.7733 -7.84889 5.88666
13.7355 -5.88666 5.88666
15.6978 -3.92444 5.88666
17.66 -1.96222 5.88666
19.6222 1.77636e-14 5.88666
-1.96222 -17.66 5.88666
17.66 1.96222 5.88666
-3.92444 -15.6978 5.88666
15.6978 3.92444 5.88666
-5.88666 -13.7355 5.88666
13.7355 5.88666 5.88666
-7.84889 -11.7733 5.88666
11.7733 7.84889 5.88666
-9.81111 -9.81111 5.88666
9.81111 9.81111 5.88666
-11.7733 -7.84889 5.88666
7.84889 11.7733 5.88666
-13.7355 -5.88666 5.88666
5.88666 13.7355 5.88666
-15.6978 -3.92444 5.88666
3.92444 15.6978 5.88666
-17.66 -1.96222 5.88666
1.96222 17.66 5.88666
-19.6222 1.59872e-14 5.88666
-17.66 1.96222 5.88666
-15.6978 3.92444 5.88666
-13.7355 5.88666 5.88666
-11.7733 7.84889 5.88666
-9.81111 9.81111 5.88666
-7.84889 11.7733 5.88666
-5.88666 13.7355 5.88666
-3.92444 15.6978 5.88666
-1.96222 17.66 5.88666
-1.77636e-15 19.6222 5.88666
7.10543e-15 -17.66 7.84889
1.96222 -15.6978 7.84889
3.92444 -13.7355 7.84889
5.88666 -11.7733 7.84889
7.84889 -9.81111 7.84889
9.81111 -7.84889 7.84889
11.7733 -5.88666 7.84889
13.7355 -3.92444 7.84889
15.6978 -1.96222 7.84889
17.66 -7.10543e-15 7.84889
-1.96222 -15.6978 7.84889
15.6978 1.96222 7.84889
-3.92444 -13.7355 7.84889
13.7355 3.92444 7.84889
-5.88666 -11.7733 7.84889
11.7733 5.88666 7.84889
-7.84889 -9.81111 7.84889
9.81111 7.84889 7.84889
-9.81111 -7.84889 7.84889
7.84889 9.81111 7.84889
-11.7733 -5.88666 7.84889
5.88666 11.7733 7.84889
-13.7355 -3.92444 7.84889
3.92444 13.7355 7.84889
-15.6978 -1.96222 7.84889
1.96222 15.6978 7.84889
-17.66 -7.10543e-15 7.84889
-15.6978 1.96222 7.84889
-13.7355 3.92444 7.84889
-11.7733 5.88666 7.84889
-9.81111 7.84889 7.84889
-7.84889 9.81111 7.84889
-5.88666 11.7733 7.84889
-3.92444 13.7355 7.84889
-1.96222 15.6978 7.84889
7.10543e-15 17.66 7.84889
-2.66454e-15 -15.6978 9.81111
1.96222 -13.7355 9.81111
3.92444 -11.7733 9.81111
5.88666 -9.81111 9.81111
7.84889 -7.84889 9.81111
9.81111 -5.88666 9.81111
11.7733 -3.92444 9.81111
13.7355 -1.96222 9.81111
15.6978 -2.66454e-15 9.81111
-1.96222 -13.7355 9.81111
13.7355 1.96222 9.81111
-3.92444 -11.7733 9.81111
11.7733 3.92444 9.81111
-5.88666 -9.81111 9.81111
9.81111 5.88666 9.81111
-7.84889 -7.84889 9.81111
7.84889 7.84889 9.81111
-9.81111 -5.88666 9.81111
5.88666 9.81111 9.81111
-11.7733 -3.92444 9.81111
3.92444 11.7733 9.81111
-13.7355 -1.96222 9.81111
1.96222 13.7355 9.81111
-15.6978 -2.66454e-15 9.81111
-13.7355 1.96222 9.81111
-11.7733 3.92444 9.81111
-9.81111 5.88666 9.81111
-7.84889 7.84889 9.81111
-5.88666 9.81111 9.81111
-3.92444 11.7733 9.81111
-1.96222 13.7355 9.81111
-2.66454e-15 15.6978 9.81111
-3.55271e-15 -13.7355 11.7733
1.96222 -11.7733 11.7733
3.92444 -9.81111 11.7733
5.88666 -7.84889 11.7733
7.84889 -5.88666 11.7733
9.81111 -3.92444 11.7733
11.7733 -1.96222 11.7733
13.7355 6.21725e-15 11.7733
-1.96222 -11.7733 11.7733
11.7733 1.96222 11.7733
-3.92444 -9.81111 11.7733
9.81111 3.92444 11.7733
-5.88666 -7.84889 11.7733
7.84889 5.88666 11.7733
-7.84889 -5.88666 11.7733
5.88666 7.84889 11.7733
-9.81111 -3.92444 11.7733
3.92444 9.81111 11.7733
-11.7733 -1.96222 11.7733
1.96222 11.7733 11.7733
-13.7355 6.21725e-15 11.7733
-11.7733 1.96222 11.7733
-9.81111 3.92444 11.7733
-7.84889 5.88666 11.7733
-5.88666 7.84889 11.7733
-3.92444 9.81111 11.7733
-1.96222 11.7733 11.7733
-3.55271e-15 13.7355 11.7733
-3.55271e-15 -11.7733 13.7355
1.96222 -9.81111 13.7355
3.92444 -7.84889 13.7355
5.88666 -5.88666 13.7355
7.84889 -3.92444 13.7355
9.81111 -1.96222 13.7355
11.7733 -1.77636e-15 13.7355
-1.96222 -9.81111 13.7355
9.81111 1.96222 13.7355
-3.92444 -7.84889 13.7355
7.84889 3.92444 13.7355
-5.88666 -5.88666 13.7355
5.88666 5.88666 13.7355
-7.84889 -3.92444 13.7355
3.92444 7.84889 13.7355
-9.81111 -1.96222 13.7355
1.96222 9.81111 13.7355
-11.7733 -1.77636e-15 13.7355
-9.81111 1.96222 13.7355
-7.84889 3.92444 13.7355
-5.88666 5.88666 13.7355
-3.92444 7.84889 13.7355
-1.96222 9.81111 13.7355
-3.55271e-15 11.7733 13.7355
8.88178e-16 -9.81111 15.6978
1.96222 -7.84889 15.6978
3.92444 -5.88666 15.6978
5.88666 -3.92444 15.6978
7.84889 -1.96222 15.6978
9.81111 -4.44089e-15 15.6978
-1.96222 -7.84889 15.6978
7.84889 1.96222 15.6978
-3.92444 -5.88666 15.6978
5.88666 3.92444 15.6978
-5.88666 -3.92444 15.6978
3.92444 5.88666 15.6978
-7.84889 -1.96222 15.6978
1.96222 7.84889 15.6978
-9.81111 -4.44089e-15 15.6978
-7.84889 1.96222 15.6978
-5.88666 3.92444 15.6978
-3.92444 5.88666 15.6978
-1.96222 7.84889 15.6978
8.88178e-16 9.81111 15.6978
-4.44089e-16 -7.84889 17.66
1.96222 -5.88666 17.66
3.92444 -3.92444 17.66
5.88666 -1.96222 17.66
7.84889 -8.88178e-16 17.66
-1.96222 -5.88666 17.66
5.88666 1.96222 17.66
-3.92444 -3.92444 17.66
3.92444 3.92444 17.66
-5.88666 -1.96222 17.66
1.96222 5.88666 17.66
-7.84889 -4.44089e-16 17.66
-5.88666 1.96222 17.66
-3.92444 3.92444 17.66
-1.96222 5.88666 17.66
-8.88178e-16 7.84889 17.66
8.88178e-16 -5.88666 19.6222
1.96222 -3.92444 19.6222
3.92444 -1.96222 19.6222
5.88666 0 19.6222
-1.96222 -3.92444 19.6222
1.22125e-15 -1.96222 19.6222
1.96222 3.33067e-16 19.6222
3.92444 1.96222 19.6222
-3.92444 -1.96222 19.6222
-1.96222 3.33067e-16 19.6222
1.22125e-15 1.96222 19.6222
1.96222 3.92444 19.6222
-5.88666 0 19.6222
-3.92444 1.96222 19.6222
-1.96222 3.92444 19.6222
8.88178e-16 5.88666 19.6222
3.92444 -19.6222 -1.96222
5.88666 -17.66 -1.96222
7.84889 -15.6978 -1.96222
9.81111 -13.7355 -1.96222
11.7733 -11.7733 -1.96222
13.7355 -9.81111 -1.96222
15.6978 -7.84889 -1.96222
17.66 -5.88666 -1.96222
19.6222 -3.92444 -1.96222
-5.32907e-15 -19.6222 -1.96222
19.6222 2.13163e-14 -1.96222
-3.92444 -19.6222 -1.96222
19.6222 3.92444 -1.96222
-5.88666 -17.66 -1.96222
17.66 5.88666 -1.96222
-7.84889 -15.6978 -1.96222
15.6978 7.84889 -1.96222
-9.81111 -13.7355 -1.96222
13.7355 9.81111 -1.96222
-11.7733 -11.7733 -1.96222
11.7733 11.7733 -1.96222
-13.7355 -9.81111 -1.96222
9.81111 13.7355 -1.96222
-15.6978 -7.84889 -1.96222
7.84889 15.6978 -1.96222
-17.66 -5.88666 -1.96222
5.88666 17.66 -1.96222
-19.6222 -3.92444 -1.96222
3.92444 19.6222 -1.96222
-19.6222 2.13163e-14 -1.96222
-5.32907e-15 19.6222 -1.96222
-19.6222 3.92444 -1.96222
-17.66 5.88666 -1.96222
-15.6978 7.84889 -1.96222
-13.7355 9.81111 -1.96222
-11.7733 11.7733 -1.96222
-9.81111 13.7355 -1.96222
-7.84889 15.6978 -1.96222
-5.88666 17.66 -1.96222
-3.92444 19.6222 -1.96222
1.96222 -19.6222 -3.92444
3.92444 -17.66 -3.92444
5.88666 -15.6978 -3.92444
7.84889 -13.7355 -3.92444
9.81111 -11.7733 -3.92444
11.7733 -9.81111 -3.92444
13.7355 -7.84889 -3.92444
15.6978 -5.88666 -3.92444
17.66 -3.92444 -3.92444
19.6222 -1.96222 -3.92444
-1.96222 -19.6222 -3.92444
19.6222 1.96222 -3.92444
-3.92444 -17.66 -3.92444
17.66 3.92444 -3.92444
-5.88666 -15.6978 -3.92444
15.6978 5.88666 -3.92444
-7.84889 -13.7355 -3.92444
13.7355 7.84889 -3.92444
-9.81111 -11.7733 -3.92444
11.7733 9.81111 -3.92444
-11.7733 -9.81111 -3.92444
9.81111 11.7733 -3.92444
-13.7355 -7.84889 -3.92444
7.84889 13.7355 -3.92444
-15.6978 -5.88666 -3.92444
5.88666 15.6978 -3.92444
-17.66 -3.92444 -3.92444
3.92444 17.66 -3.92444
-19.6222 -1.96222 -3.92444
1.96222 19.6222 -3.92444
-19.6222 1.96222 -3.92444
-17.66 3.92444 -3.92444
-15.6978 5.88666 -3.92444
-13.7355 7.84889 -3.92444
-11.7733 9.81111 -3.92444
-9.81111 11.7733 -3.92444
-7.84889 13.7355 -3.92444
-5.88666 15.6978 -3.92444
-3.92444 17.66 -3.92444
-1.96222 19.6222 -3.92444
-3.55271e-15 -19.6222 -5.88666
1.96222 -17.66 -5.88666
3.92444 -15.6978 -5.88666
5.88666 -13.7355 -5.88666
7.84889 -11.7733 -5.88666
9.81111 -9.81111 -5.88666
11.7733 -7.84889 -5.88666
13.7355 -5.88666 -5.88666
15.6978 -3.92444 -5.88666
17.66 -1.96222 -5.88666
19.6222 1.77636e-14 -5.88666
-1.96222 -17.66 -5.88666
17.66 1.96222 -5.88666
-3.92444 -15.6978 -5.88666
15.6978 3.92444 -5.88666
-5.88666 -13.7355 -5.88666
13.7355 5.88666 -5.88666
-7.84889 -11.7733 -5.88666
11.7733 7.84889 -5.88666
-9.81111 -9.81111 -5.88666
9.81111 9.81111 -5.88666
-11.7733 -7.84889 -5.88666
7.84889 11.7733 -5.88666
-13.7355 -5.88666 -5.88666
5.88666 13.7355 -5.88666
-15.6978 -3.92444 -5.88666
3.92444 15.6978 -5.88666
-17.66 -1.96222 -5.88666
1.96222 17.66 -5.88666
-19.6222 1.59872e-14 -5.88666
-17.66 1.96222 -5.88666
-15.6978 3.92444 -5.88666
-13.7355 5.88666 -5.88666
-11.7733 7.84889 -5.88666
-9.81111 9.81111 -5.88666
-7.84889 11.7733 -5.88666
-5.88666 13.7355 -5.88666
-3.92444 15.6978 -5.88666
-1.96222 17.66 -5.88666
-1.77636e-15 19.6222 -5.88666
7.10543e-15 -17.66 -7.84889
1.96222 -15.6978 -7.84889
3.92444 -13.7355 -7.84889
5.88666 -11.7733 -7.84889
7.84889 -9.81111 -7.84889
9.81111 -7.84889 -7.84889
11.7733 -5.88666 -7.84889
13.7355 -3.92444 -7.84889
15.6978 -1.96222 -7.84889
17.66 -7.10543e-15 -7.84889
-1.96222 -15.6978 -7.84889
15.6978 1.96222 -7.84889
-3.92444 -13.7355 -7.84889
13.7355 3.92444 -7.84889
-5.88666 -11.7733 -7.84889
11.7733 5.88666 -7.84889
-7.84889 -9.81111 -7.84889
9.81111 7.84889 -7.84889
-9.81111 -7.84889 -7.84889
7.84889 9.81111 -7.84889
-11.7733 -5.88666 -7.84889
5.88666 11.7733 -7.84889
-13.7355 -3.92444 -7.84889
3.92444 13.7355 -7.84889
-15.6978 -1.96222 -7.84889
1.96222 15.6978 -7.84889
-17.66 -7.10543e-15 -7.84889
-15.6978 1.96222 -7.84889
-13.7355 3.92444 -7.84889
-11.7733 5.88666 -7.84889
-9.81111 7.84889 -7.84889
-7.84889 9.81111 -7.84889
-5.88666 11.7733 -7.84889
-3.92444 13.7355 -7.84889
-1.96222 15.6978 -7.84889
7.10543e-15 17.66 -7.84889
-2.66454e-15 -15.6978 -9.81111
1.96222 -13.7355 -9.81111
3.92444 -11.7733 -9.81111
5.88666 -9.81111 -9.81111
7.84889 -7.84889 -9.81111
9.81111 -5.88666 -9.81111
11.7733 -3.92444 -9.81111
13.7355 -1.96222 -9.81111
15.6978 -2.66454e-15 -9.81111
-1.96222 -13.7355 -9.81111
13.7355 1.96222 -9.81111
-3.92444 -11.7733 -9.81111
11.7733 3.92444 -9.81111
-5.88666 -9.81111 -9.81111
9.81111 5.88666 -9.81111
-7.84889 -7.84889 -9.81111
7.84889 7.84889 -9.81111
-9.81111 -5.88666 -9.81111
5.88666 9.81111 -9.81111
-11.7733 -3.92444 -9.81111
3.92444 11.7733 -9.81111
-13.7355 -1.96222 -9.81111
1.96222 13.7355 -9.81111
-15.6978 -2.66454e-15 -9.81111
-13.7355 1.96222 -9.81111
-11.7733 3.92444 -9.81111
-9.81111 5.88666 -9.81111
-7.84889 7.84889 -9.81111
-5.88666 9.81111 -9.81111
-3.92444 11.7733 -9.81111
-1.96222 13.7355 -9.81111
-2.66454e-15 15.6978 -9.81111
-3.55271e-15 -13.7355 -11.7733
1.96222 -11.7733 -11.7733
3.92444 -9.81111 -11.7733
5.88666 -7.84889 -11.7733
7.84889 -5.88666 -11.7733
9.81111 -3.92444 -11.7733
11.7733 -1.96222 -11.7733
13.7355 6.21725e-15 -11.7733
-1.96222 -11.7733 -11.7733
-3.55271e-15 -9.81111 -11.7733
1.96222 -7.84889 -11.7733
3.92444 -5.88666 -11.7733
5.88666 -3.92444 -11.7733
7.84889 -1.96222 -11.7733
9.81111 5.32907e-15 -11.7733
11.7733 1.96222 -11.7733
-3.92444 -9.81111 -11.7733
-1.96222 -7.84889 -11.7733
-3.9968e-15 -5.88666 -11.7733
1.96222 -3.92444 -11.7733
3.92444 -1.96222 -11.7733
5.88666 5.77316e-15 -11.7733
7.84889 1.96222 -11.7733
9.81111 3.92444 -11.7733
-5.88666 -7.84889 -11.7733
-3.92444 -5.88666 -11.7733
-1.96222 -3.92444 -11.7733
-3.77476e-15 -1.96222 -11.7733
1.96222 4.996e-15 -11.7733
3.92444 1.96222 -11.7733
5.88666 3.92444 -11.7733
7.84889 5.88666 -11.7733
-7.84889 -5.88666 -11.7733
-5.88666 -3.92444 -11.7733
-3.92444 -1.96222 -11.7733
-1.96222 4.996e-15 -11.7733
-3.77476e-15 1.96222 -11.7733
1.96222 3.92444 -11.7733
3.92444 5.88666 -11.7733
5.88666 7.84889 -11.7733
-9.81111 -3.92444 -11.7733
-7.84889 -1.96222 -11.7733
-5.88666 5.32907e-15 -11.7733
-3.92444 1.96222 -11.7733
-1.96222 3.92444 -11.7733
-3.55271e-15 5.88666 -11.7733
1.96222 7.84889 -11.7733
3.92444 9.81111 -11.7733
-11.7733 -1.96222 -11.7733
-9.81111 5.32907e-15 -11.7733
-7.84889 1.96222 -11.7733
-5.88666 3.92444 -11.7733
-3.92444 5.88666 -11.7733
-1.96222 7.84889 -11.7733
-3.55271e-15 9.81111 -11.7733
1.96222 11.7733 -11.7733
-13.7355 6.21725e-15 -11.7733
-11.7733 1.96222 -11.7733
-9.81111 3.92444 -11.7733
-7.84889 5.88666 -11.7733
-5.88666 7.84889 -11.7733
-3.92444 9.81111 -11.7733
-1.96222 11.7733 -11.7733
-3.55271e-15 13.7355 -11.7733
