162
3.92444 -9.81111 0
5.88666 -7.84889 0
7.84889 -5.88666 0
9.81111 -3.92444 0
-3.55271e-15 -9.81111 0
9.81111 5.32907e-15 0
-3.92444 -9.81111 0
9.81111 3.92444 0
-5.88666 -7.84889 0
7.84889 5.88666 0
-7.84889 -5.88666 0
5.88666 7.84889 0
-9.81111 -3.92444 0
3.92444 9.81111 0
-9.81111 5.32907e-15 0
-3.55271e-15 9.81111 0
-9.81111 3.92444 0
-7.84889 5.88666 0
-5.88666 7.84889 0
-3.92444 9.81111 0
1.96222 -9.81111 1.96222
3.92444 -7.84889 1.96222
5.88666 -5.88666 1.96222
7.84889 -3.92444 1.96222
9.81111 -1.96222 1.96222
-1.96222 -9.81111 1.96222
9.81111 1.96222 1.96222
-3.92444 -7.84889 1.96222
7.84889 3.92444 1.96222
-5.88666 -5.88666 1.96222
5.88666 5.88666 1.96222
-7.84889 -3.92444 1.96222
3.92444 7.84889 1.96222
-9.81111 -1.96222 1.96222
1.96222 9.81111 1.96222
-9.81111 1.96222 1.96222
-7.84889 3.92444 1.96222
-5.88666 5.88666 1.96222
-3.92444 7.84889 1.96222
-1.96222 9.81111 1.96222
8.88178e-16 -9.81111 3.92444
1.96222 -7.84889 3.92444
3.92444 -5.88666 3.92444
5.88666 -3.92444 3.92444
7.84889 -1.96222 3.92444
9.81111 -4.44089e-15 3.92444
-1.96222 -7.84889 3.92444
7.84889 1.96222 3.92444
-3.92444 -5.88666 3.92444
5.88666 3.92444 3.92444
-5.88666 -3.92444 3.92444
3.92444 5.88666 3.92444
-7.84889 -1.96222 3.92444
1.96222 7.84889 3.92444
-9.81111 -4.44089e-15 3.92444
-7.84889 1.96222 3.92444
-5.88666 3.92444 3.92444
-3.92444 5.88666 3.92444
-1.96222 7.84889 3.92444
8.88178e-16 9.81111 3.92444
-4.44089e-16 -7.84889 5.88666
1.96222 -5.88666 5.88666
3.92444 -3.92444 5.88666
5.88666 -1.96222 5.88666
7.84889 -8.88178e-16 5.88666
-1.96222 -5.88666 5.88666
5.88666 1.96222 5.88666
-3.92444 -3.92444 5.88666
3.92444 3.92444 5.88666
-5.88666 -1.96222 5.88666
1.96222 5.88666 5.88666
-7.84889 -4.44089e-16 5.88666
-5.88666 1.96222 5.88666
-3.92444 3.92444 5.88666
-1.96222 5.88666 5.88666
-8.88178e-16 7.84889 5.88666
8.88178e-16 -5.88666 7.84889
1.96222 -3.92444 7.84889
3.92444 -1.96222 7.84889
5.88666 0 7.84889
-1.96222 -3.92444 7.84889
3.92444 1.96222 7.84889
-3.92444 -1.96222 7.84889
1.96222 3.92444 7.84889
-5.88666 0 7.84889
-3.92444 1.96222 7.84889
-1.96222 3.92444 7.84889
8.88178e-16 5.88666 7.84889
0 -3.92444 9.81111
1.96222 -1.96222 9.81111
3.92444 0 9.81111
-1.96222 -1.96222 9.81111
0 0 9.81111
1.96222 1.96222 9.81111
-3.92444 0 9.81111
-1.96222 1.96222 9.81111
0 3.92444 9.81111
1.96222 -9.81111 -1.96222
3.92444 -7.84889 -1.96222
5.88666 -5.88666 -1.96222
7.84889 -3.92444 -1.96222
9.81111 -1.96222 -1.96222
-1.96222 -9.81111 -1.96222
9.81111 1.96222 -1.96222
-3.92444 -7.84889 -1.96222
7.84889 3.92444 -1.96222
-5.88666 -5.88666 -1.96222
5.88666 5.88666 -1.96222
-7.84889 -3.92444 -1.96222
3.92444 7.84889 -1.96222
-9.81111 -1.96222 -1.96222
1.96222 9.81111 -1.96222
-9.81111 1.96222 -1.96222
-7.84889 3.92444 -1.96222
-5.88666 5.88666 -1.96222
-3.92444 7.84889 -1.96222
-1.96222 9.81111 -1.96222
8.88178e-16 -9.81111 -3.92444
1.96222 -7.84889 -3.92444
3.92444 -5.88666 -3.92444
5.88666 -3.92444 -3.92444
7.84889 -1.96222 -3.92444
9.81111 -4.44089e-15 -3.92444
-1.96222 -7.84889 -3.92444
7.84889 1.96222 -3.92444
-3.92444 -5.88666 -3.92444
5.88666 3.92444 -3.92444
-5.88666 -3.92444 -3.92444
3.92444 5.88666 -3.92444
-7.84889 -1.96222 -3.92444
1.96222 7.84889 -3.92444
-9.81111 -4.44089e-15 -3.92444
-7.84889 1.96222 -3.92444
-5.88666 3.92444 -3.92444
-3.92444 5.88666 -3.92444
-1.96222 7.84889 -3.92444
8.88178e-16 9.81111 -3.92444
-4.44089e-16 -7.84889 -5.88666
1.96222 -5.88666 -5.88666
3.92444 -3.92444 -5.88666
5.88666 -1.96222 -5.88666
7.84889 -8.88178e-16 -5.88666
-1.96222 -5.88666 -5.88666
-6.66134e-16 -3.92444 -5.88666
1.96222 -1.96222 -5.88666
3.92444 -8.88178e-16 -5.88666
5.88666 1.96222 -5.88666
-3.92444 -3.92444 -5.88666
-1.96222 -1.96222 -5.88666
-6.28037e-16 -6.28037e-16 -5.88666
1.96222 1.96222 -5.88666
3.92444 3.92444 -5.88666
-5.88666 -1.96222 -5.88666
-3.92444 -1.11022e-15 -5.88666
-1.96222 1.96222 -5.88666
-4.44089e-16 3.92444 -5.88666
1.96222 5.88666 -5.88666
-7.84889 -4.44089e-16 -5.88666
-5.88666 1.96222 -5.88666
-3.92444 3.92444 -5.88666
-1.96222 5.88666 -5.88666
-8.88178e-16 7.84889 -5.88666
